# .PCD v0.7 - Point Cloud Data file format
VERSION 0.7
FIELDS x y z normal_x normal_y normal_z curvature
SIZE 4 4 4 4 4 4 4
TYPE F F F F F F F
COUNT 1 1 1 1 1 1 1
WIDTH 571
HEIGHT 1
VIEWPOINT 0 0 0 1 0 0 0
POINTS 571
DATA ascii
-0.15894938 -0.034708824 0.47862756 0.16745405 -0.089313194 0.98182601 0.00045426859
-0.16258109 -0.032834612 0.47938234 0.16946112 -0.089355826 0.98147768 0.00042344697
-0.16094065 -0.03262727 0.4791376 0.1681295 -0.088628858 0.9817726 0.00045071868
-0.15901701 -0.032610569 0.47882962 0.1679199 -0.088207543 0.98184639 0.00046729032
-0.15715888 -0.032591283 0.47852391 0.16870043 -0.087624855 0.98176479 0.00047181183
-0.15597321 -0.032007929 0.47838539 0.16909331 -0.087744623 0.98168647 0.00047490123
-0.16234559 -0.030920075 0.47951224 0.17020507 -0.08938086 0.98134667 0.00042245587
-0.16097751 -0.030913604 0.47929385 0.16907986 -0.088549942 0.9816165 0.00045352706
-0.15914463 -0.030895635 0.4790031 0.16840658 -0.087400168 0.98183525 0.00047578345
-0.15666477 -0.030872453 0.47860453 0.16889895 -0.086932912 0.98179215 0.00048345255
-0.15478939 -0.031423472 0.47823334 0.17044777 -0.087144971 0.98150563 0.00048183234
-0.153607 -0.030839473 0.47807923 0.17144661 -0.08633963 0.98140281 0.0004933484
-0.16114625 -0.029764386 0.4794229 0.16986375 -0.089035563 0.98143721 0.00044330291
-0.15919641 -0.029181434 0.47916326 0.16937734 -0.087373979 0.98167056 0.00047193951
-0.15671544 -0.029160086 0.47876444 0.16948681 -0.085907117 0.98178113 0.0004883316
-0.15484443 -0.029143928 0.47845513 0.17060712 -0.084993243 0.98166662 0.00049336592
-0.15357931 -0.02913302 0.47823769 0.17140961 -0.084671304 0.98155463 0.00049213134
-0.15911755 -0.027079973 0.47933307 0.17108399 -0.086059958 0.98149067 0.00046830255
-0.15668252 -0.026879389 0.47895417 0.17090386 -0.083899081 0.98170912 0.0004954224
-0.15481026 -0.026865231 0.47865093 0.17124982 -0.083162174 0.98171157 0.00050803612
-0.15877122 -0.024596449 0.47948301 0.17350589 -0.084519975 0.98119932 0.00046022545
-0.15691522 -0.024786387 0.47916517 0.17304067 -0.083309002 0.98138499 0.00049032999
-0.1548159 -0.025153998 0.47879726 0.17209418 -0.081894144 0.9816705 0.00050820207
-0.15351947 -0.025147134 0.47857812 0.17230636 -0.081532918 0.98166335 0.00051285501
-0.15868405 -0.022886897 0.47961909 0.1741921 -0.08363232 0.98115379 0.00046172726
-0.15650058 -0.023260897 0.47922638 0.17368077 -0.082498036 0.98134047 0.00048806597
-0.15482131 -0.023442205 0.47894195 0.17256404 -0.081764549 0.98159879 0.00050521881
-0.15320204 -0.023238752 0.47868359 0.17271736 -0.081364579 0.98160505 0.000513056
-0.15872025 -0.021169132 0.47977093 0.17526093 -0.08358907 0.9809671 0.00045555446
-0.15676853 -0.021163935 0.47944269 0.17481528 -0.082695112 0.98112237 0.00047557769
-0.15484996 -0.021157246 0.47913095 0.17382315 -0.081545271 0.98139489 0.00049900304
-0.15301166 -0.021144943 0.47882444 0.1732381 -0.081101514 0.98153508 0.00051351811
-0.15868686 -0.018883392 0.47995675 0.17622364 -0.082755379 0.9808653 0.00045882742
-0.15682764 -0.018873837 0.47964492 0.17572053 -0.082453243 0.98098099 0.00047566809
-0.15503012 -0.018859692 0.47934633 0.17464551 -0.081986263 0.98121208 0.00049093057
-0.15309909 -0.018856259 0.47902775 0.17391403 -0.081253119 0.98140299 0.00050254224
-0.15866157 -0.017169105 0.48009688 0.17652462 -0.082583368 0.98082572 0.00046758051
-0.15680234 -0.017160941 0.47978517 0.17614447 -0.082484253 0.98090237 0.00047533127
-0.15506576 -0.017142735 0.47949755 0.1753269 -0.082176454 0.98107469 0.00049082638
-0.15314971 -0.017140118 0.47918001 0.17410499 -0.082076006 0.98130065 0.00050307345
-0.15920965 -0.015461844 0.48033518 0.17764309 -0.083279483 0.98056489 0.00046785636
-0.15677717 -0.015448334 0.47992468 0.17632438 -0.083118387 0.98081654 0.00047392902
-0.15501061 -0.015433313 0.47963187 0.17525861 -0.082815997 0.98103309 0.00048930838
-0.15310965 -0.015430886 0.47931707 0.17441183 -0.08242622 0.98121679 0.00049879577
-0.15114447 -0.014864748 0.47903517 0.17415096 -0.082528293 0.98125458 0.00050127186
-0.15903862 -0.013359895 0.48048598 0.17767718 -0.083871372 0.98050827 0.0004715223
-0.15686588 -0.013152157 0.48013473 0.17673881 -0.083366677 0.98072088 0.00047841508
-0.15497743 -0.013150301 0.47981587 0.17574048 -0.083278947 0.98090768 0.00048538955
-0.15313819 -0.013143869 0.47950694 0.17463945 -0.083394937 0.98109448 0.00049152499
-0.15062317 -0.013142686 0.47909138 0.17357995 -0.083226986 0.98129672 0.00049213716
-0.15646559 -0.011410667 0.48021415 0.17597252 -0.084120587 0.98079425 0.00048244739
-0.15454656 -0.011413761 0.47989085 0.1755437 -0.083721012 0.98090529 0.00048757638
-0.15280367 -0.01082508 0.47964337 0.17480206 -0.083636031 0.98104501 0.00049145927
-0.15085867 -0.01083293 0.47932392 0.17427146 -0.083224192 0.98117441 0.00049479591
-0.14894801 -0.010837023 0.47900459 0.17367345 -0.083190516 0.98128325 0.00049221417
-0.14779618 -0.010255619 0.47885999 0.1734235 -0.083679706 0.98128587 0.00049240538
-0.15113233 -0.0090857912 0.47951728 0.17427772 -0.083634041 0.98113841 0.00049256877
-0.14918949 -0.009095531 0.47919431 0.17367953 -0.083562508 0.98125058 0.00049190142
-0.14728174 -0.0091010705 0.47886971 0.17310554 -0.083715029 0.98133904 0.00049406337
-0.15063858 -0.0073526138 0.47957647 0.1736878 -0.084247522 0.98119056 0.00048719053
-0.14862327 -0.0073743938 0.47923744 0.17326684 -0.084515631 0.98124194 0.00048180783
-0.14667049 -0.0073883631 0.47891191 0.17273524 -0.084549122 0.98133278 0.0004853202
-0.15073349 -0.0056222305 0.47973669 0.17363428 -0.085265242 0.98111212 0.00048834982
-0.14872415 -0.0050734743 0.47944176 0.17305109 -0.085372552 0.98120582 0.00048768512
-0.14681448 -0.0050843186 0.47912383 0.17209537 -0.085819341 0.98133492 0.00048634494
-0.14549592 -0.0050988849 0.47890192 0.17174368 -0.086204946 0.98136276 0.00048527165
-0.14869499 -0.002949266 0.47961175 0.17277561 -0.08701434 0.98111016 0.00049338478
-0.14689972 -0.0027861216 0.47932744 0.17183301 -0.087675855 0.98121679 0.00049397908
-0.14552248 -0.0028128403 0.47909555 0.17095402 -0.08814919 0.98132789 0.00048866926
-0.14831449 -0.0010372417 0.47970775 0.17202476 -0.089510903 0.98101747 0.00049270125
-0.14690448 -0.001071466 0.47947216 0.17147373 -0.089590102 0.9811067 0.0004913258
-0.14549801 -0.0011056996 0.47923768 0.17061345 -0.089505374 0.98126441 0.00049024721
-0.1482016 0.0006585145 0.47983646 0.17185785 -0.09147995 0.98086506 0.00048301194
-0.14685087 0.00063255115 0.47960731 0.17154841 -0.0914547 0.98092163 0.00048660443
-0.14488678 0.00060401123 0.47928211 0.17071983 -0.09114483 0.98109496 0.00048385718
-0.14312011 0.0011815183 0.47903821 0.16965018 -0.092009008 0.98119986 0.00048894313
-0.14837278 0.0029801254 0.4800671 0.17216106 -0.093518391 0.98061967 0.00046630806
-0.14696224 0.0029395106 0.47982782 0.1718373 -0.093405887 0.98068714 0.00047398036
-0.14501299 0.0029105835 0.47949937 0.17046288 -0.093318865 0.98093528 0.00048153766
-0.14265214 0.0029189701 0.47911507 0.16920124 -0.092847079 0.98119843 0.00049335411
-0.14086618 0.0029223345 0.47881505 0.16897447 -0.092475317 0.98127264 0.00050300726
-0.14718996 0.0052738925 0.48007745 0.17218503 -0.095477663 0.98042661 0.00045674169
-0.14518028 0.0052297781 0.47973537 0.17114288 -0.094902225 0.98066491 0.00047629813
-0.14271684 0.0052152211 0.47933346 0.16961356 -0.094129823 0.98100501 0.00049910281
-0.14097178 0.0052267802 0.47904375 0.1694611 -0.093421564 0.98109907 0.0005136375
-0.13974419 0.0052203648 0.47883508 0.16939186 -0.093004689 0.98115063 0.00051308615
-0.14607488 0.0070100259 0.48004711 0.17161869 -0.095670238 0.98050714 0.00045628549
-0.14466681 0.0069631287 0.47981185 0.17138322 -0.095192149 0.98059481 0.00046956842
-0.14279036 0.0069449712 0.47950032 0.17059933 -0.094532199 0.98079538 0.00049410475
-0.14103049 0.0069525465 0.47921115 0.16988033 -0.093679041 0.98100197 0.00051145093
-0.13918819 0.0069411574 0.47890159 0.16986518 -0.093158051 0.98105425 0.00051604782
-0.14499508 0.0081822313 0.47997668 0.17204513 -0.095567256 0.98044246 0.00045616974
-0.14304994 0.0087197069 0.47970507 0.17150892 -0.094790779 0.98061174 0.00047909524
-0.14060172 0.0087054772 0.47929907 0.17081101 -0.093580112 0.9808498 0.00050611148
-0.13865982 0.0086697014 0.47897077 0.170679 -0.093140535 0.98091465 0.00051224564
-0.13748032 0.0092430105 0.47882259 0.17076962 -0.092898533 0.9809218 0.00051244919
-0.14266451 0.010486702 0.47980374 0.1720155 -0.094967976 0.98050588 0.00046891818
-0.14079304 0.011039048 0.47954255 0.17211699 -0.093725927 0.98060757 0.00049047486
-0.1387928 0.010986444 0.47920352 0.1712797 -0.093008637 0.98082244 0.000500692
-0.13692421 0.010965247 0.47888651 0.17136891 -0.092577077 0.98084766 0.0005071949
-0.14032581 0.013361113 0.47967726 0.17285526 -0.093205243 0.98052734 0.00046788022
-0.13892688 0.013307522 0.4794327 0.17249052 -0.092679232 0.98064142 0.00048384376
-0.13694505 0.013255725 0.47909603 0.17192511 -0.091818862 0.98082161 0.00049041142
-0.13512748 0.01381662 0.47882974 0.17192318 -0.091137581 0.98088551 0.00048005334
-0.13895696 0.015032201 0.47958964 0.17334652 -0.092384733 0.98051828 0.00046393217
-0.13700373 0.0149858 0.47925511 0.17240401 -0.091445215 0.9807725 0.00047489617
-0.13516574 0.014968914 0.47893554 0.17206194 -0.091403224 0.98083645 0.00047702724
-0.13924184 0.016825831 0.47979742 0.17390585 -0.09226279 0.98043066 0.00045073021
-0.13711855 0.016732456 0.47942021 0.17309189 -0.091763981 0.98062152 0.00045498929
-0.13464002 0.016701177 0.47898766 0.17243692 -0.090929352 0.98081464 0.0004537233
-0.13799948 0.019676168 0.4798204 0.17440885 -0.092373922 0.98033088 0.00042401315
-0.13700502 0.018854007 0.47957867 0.17369497 -0.091839768 0.98050779 0.00043834932
-0.13473153 0.019013444 0.47919893 0.17254621 -0.091192171 0.98077101 0.000439222
-0.13282707 0.018974463 0.47886178 0.17294906 -0.090831943 0.98073351 0.00044524393
-0.13798268 0.020818116 0.47991446 0.17484593 -0.091714814 0.98031491 0.00041655998
-0.13677448 0.021383408 0.4797478 0.17475279 -0.091500595 0.98035151 0.00041978949
-0.13485025 0.021337014 0.47941583 0.17335998 -0.090763003 0.98066729 0.00043161548
-0.13295828 0.021299729 0.47908112 0.17335033 -0.09024021 0.98071724 0.00043488279
-0.13134377 0.021476233 0.47881076 0.17400578 -0.089586802 0.98066109 0.00043859388
-0.13507542 0.023122206 0.47960228 0.1745701 -0.089911431 0.9805311 0.0004216723
-0.13309772 0.023058388 0.47925386 0.17417952 -0.088819169 0.98070008 0.0004276711
-0.13126348 0.023035854 0.47893003 0.17451465 -0.088363506 0.98068166 0.0004363601
-0.12887572 0.023022816 0.47849977 0.17602527 -0.088124894 0.98043311 0.00045396312
-0.1345188 0.024851976 0.47965407 0.17504929 -0.088459 0.98057777 0.00041411654
-0.13318226 0.024802063 0.47942102 0.17469089 -0.08791814 0.9806903 0.00042230354
-0.13131876 0.024769835 0.47909281 0.17475794 -0.087270789 0.9807362 0.00042428292
-0.12897035 0.024767559 0.47867683 0.17623132 -0.086582251 0.98053354 0.00042982635
-0.12720941 0.024765307 0.47835392 0.17724074 -0.086845249 0.98032832 0.00044239149
-0.13465187 0.027187349 0.47987854 0.17656632 -0.087178551 0.98042041 0.0003901741
-0.13264538 0.027110059 0.4795261 0.17624545 -0.085742712 0.98060477 0.00039625497
-0.1308089 0.027084369 0.4792046 0.17586185 -0.085188918 0.98072189 0.0003982971
-0.12909827 0.027097037 0.47890368 0.17610717 -0.084835276 0.98070854 0.00039903293
-0.12671272 0.027080847 0.47846967 0.17802458 -0.084684245 0.98037535 0.00040570853
-0.13284008 0.028891589 0.47971365 0.1771818 -0.084755287 0.98052186 0.00037415297
-0.13100168 0.028864218 0.47939348 0.17654915 -0.083868064 0.98071223 0.00037618616
-0.1290295 0.029237723 0.47907963 0.17663753 -0.083329357 0.98074228 0.00036882228
-0.12677039 0.029389312 0.47868907 0.17770551 -0.083194114 0.98056078 0.0003676271
-0.13226525 0.030042553 0.47970992 0.1774053 -0.084448382 0.98050797 0.00035656334
-0.13103031 0.030594476 0.47954804 0.17716685 -0.083156139 0.98066151 0.00035748116
-0.12945001 0.030777112 0.47928798 0.17704915 -0.082607634 0.9807291 0.00035641339
-0.12677054 0.031107802 0.47884196 0.17759658 -0.082537755 0.980636 0.00034783903
-0.1248622 0.031053357 0.47849077 0.17904679 -0.0826739 0.98036081 0.0003532737
-0.13111565 0.03234455 0.47970232 0.17764916 -0.083272845 0.98056436 0.00034388187
-0.12933823 0.032908224 0.47944576 0.17762338 -0.082044281 0.98067254 0.00034002357
-0.12683934 0.032850109 0.47900221 0.17788903 -0.081667922 0.98065585 0.00033133102
-0.12494376 0.032798208 0.47865564 0.17898764 -0.081727825 0.98045093 0.00033294558
-0.12371758 0.033348523 0.4784759 0.17997514 -0.081785336 0.98026532 0.00033305134
-0.12895977 0.034699805 0.47952229 0.17812833 -0.081710242 0.98060888 0.00032651075
-0.12706244 0.035221104 0.47923508 0.17837858 -0.081164375 0.9806087 0.0003177516
-0.12506984 0.035133921 0.47887439 0.17864954 -0.081028104 0.98057061 0.00031439785
-0.12321676 0.035093371 0.47853562 0.180071 -0.081298351 0.98028821 0.00031899195
-0.12658828 0.036981054 0.47929254 0.17851199 -0.080720551 0.98062104 0.0003090142
-0.12520525 0.036901627 0.47904682 0.17873435 -0.080604047 0.98059016 0.00030541673
-0.12309685 0.037220087 0.478697 0.17980051 -0.080855004 0.98037452 0.00030298936
-0.1214377 0.037368525 0.47840294 0.18091276 -0.081369102 0.98012733 0.00031687412
-0.12662579 0.038143605 0.4793928 0.17856599 -0.080540553 0.98062605 0.00030124868
-0.12470385 0.038651798 0.47909957 0.17889905 -0.080462247 0.98057175 0.00029873085
-0.12283906 0.039178185 0.47881457 0.17934582 -0.080885284 0.98045534 0.00029438635
-0.12146433 0.03909659 0.47855794 0.18038505 -0.081201978 0.9802385 0.00030126891
-0.12476576 0.040971663 0.47929242 0.17870583 -0.080225222 0.9806264 0.00029817742
-0.12281492 0.040890235 0.47894663 0.17907964 -0.080342799 0.98054856 0.000292268
-0.12110128 0.041015111 0.47864941 0.18011336 -0.080728561 0.98032755 0.00029799109
-0.12654573 0.043862473 0.4798325 0.17845555 -0.080145441 0.9806785 0.00030188015
-0.12466698 0.043231968 0.47945461 0.17885192 -0.079927891 0.98062402 0.00030163271
-0.12278249 0.043172892 0.47912434 0.17898995 -0.080281414 0.98056996 0.00029568555
-0.12096885 0.043140244 0.47880062 0.17978527 -0.080546819 0.98040271 0.00029615301
-0.11877622 0.043299742 0.47842064 0.18054236 -0.080656089 0.98025459 0.00031460583
-0.12652959 0.045006264 0.47992116 0.17855918 -0.079392917 0.98072088 0.00030595021
-0.12461616 0.044935565 0.47958043 0.17872311 -0.079553619 0.98067796 0.00030761151
-0.1227591 0.04488549 0.47925287 0.17881292 -0.079703525 0.98064941 0.00030393145
-0.12095736 0.044856396 0.47893736 0.17951463 -0.079921901 0.98050344 0.00029952885
-0.11839622 0.045211386 0.47850859 0.17994851 -0.080386087 0.98038596 0.00031803077
-0.12645152 0.046700593 0.48004368 0.17858942 -0.079327829 0.98072064 0.00030685993
-0.124525 0.046622697 0.47969952 0.17871171 -0.079075709 0.98071867 0.00031138081
-0.12273479 0.046597939 0.47938591 0.1789197 -0.079196125 0.98067105 0.00030996031
-0.12094625 0.046572879 0.47907391 0.17919293 -0.0794909 0.98059732 0.0003059119
-0.11877879 0.04673966 0.47870654 0.17933628 -0.079969563 0.98053217 0.00031269007
-0.12641898 0.048987605 0.48022151 0.17893712 -0.079342164 0.98065609 0.00031443586
-0.12457271 0.048939969 0.47989416 0.17870164 -0.079219192 0.98070896 0.00031850478
-0.12280872 0.048925191 0.47958153 0.17889468 -0.079285108 0.98066843 0.00032111676
-0.12103287 0.048904482 0.47927198 0.17879017 -0.079272076 0.98068851 0.00031728126
-0.11861125 0.048852641 0.4788475 0.17891003 -0.079858519 0.98061907 0.00031502239
-0.12650077 0.050747424 0.48037907 0.17907137 -0.07987088 0.98058861 0.00031695672
-0.12456556 0.051125165 0.48006997 0.17863849 -0.079852618 0.98066908 0.00032032467
-0.12298711 0.051299296 0.47980526 0.1789041 -0.079974011 0.98061079 0.00032179043
-0.12123612 0.051288754 0.47949997 0.17869584 -0.079988189 0.98064756 0.00032431338
-0.11868348 0.051178843 0.47904244 0.17842825 -0.079884902 0.98070472 0.0003267061
-0.11684643 0.051128283 0.4787184 0.17912728 -0.080523692 0.98052502 0.00032780887
-0.11572739 0.051714305 0.47856516 0.17922325 -0.080874778 0.98047858 0.0003274511
-0.12312213 0.053083204 0.47997186 0.17908946 -0.080226153 0.98055631 0.00032918848
-0.12134316 0.053060703 0.47965872 0.17896745 -0.080042474 0.98059362 0.00033405735
-0.11872403 0.052918762 0.47918978 0.17803347 -0.08017049 0.98075318 0.00033401739
-0.11687382 0.052860901 0.47886494 0.17848754 -0.08065933 0.98063052 0.00033132447
-0.11571042 0.05285354 0.47865897 0.17880292 -0.081174247 0.98053062 0.00033006587
-0.12078752 0.054796014 0.47969738 0.17898002 -0.080632173 0.98054302 0.00033664188
-0.11879032 0.05467182 0.47934356 0.17797759 -0.080481507 0.98073786 0.00033873759
-0.11690086 0.054594841 0.47901025 0.17805743 -0.080552593 0.98071748 0.00033696982
-0.11515563 0.054583102 0.47870177 0.17852803 -0.080986179 0.98059624 0.00033758307
-0.1189651 0.057052214 0.47956362 0.17882083 -0.08150214 0.98050016 0.00034278526
-0.11699697 0.056936108 0.4792155 0.17771685 -0.081135437 0.98073125 0.0003488868
-0.11519896 0.056898683 0.47890249 0.17795491 -0.081420429 0.98066443 0.00034640849
-0.118857 0.059201501 0.47972035 0.17871015 -0.082519814 0.98043519 0.000346571
-0.11714353 0.05930477 0.4794344 0.17803796 -0.082308739 0.9805752 0.00034773353
-0.11522928 0.059209611 0.47909948 0.17749551 -0.082335345 0.98067135 0.00034940086
-0.11338775 0.059721604 0.47882026 0.17754078 -0.083218612 0.98058856 0.00035106367
-0.11843961 0.061103348 0.47980708 0.17836012 -0.083362132 0.98042768 0.00035032252
-0.1171687 0.061042611 0.47958586 0.17808849 -0.083199717 0.98049086 0.00035388567
-0.11524194 0.060938757 0.47924677 0.17774951 -0.083083816 0.98056215 0.00035694137
-0.11342071 0.0608867 0.47892377 0.17742173 -0.082914367 0.98063588 0.00035609942
-0.11849116 0.06285686 0.47996128 0.17861985 -0.084252514 0.98030424 0.00034780891
-0.11678688 0.062960185 0.47967544 0.17851192 -0.083795913 0.98036307 0.00035154575
-0.115119 0.06250529 0.47935581 0.17763901 -0.083576344 0.98054034 0.00035839365
-0.112878 0.062623858 0.47897187 0.17736208 -0.083312154 0.98061293 0.00036293
-0.11111535 0.063172944 0.47870103 0.17750821 -0.083594322 0.98056251 0.00036608402
-0.1184918 0.064584836 0.48010507 0.17911246 -0.085505545 0.98010588 0.00034138627
-0.1166689 0.065107763 0.47983208 0.17892736 -0.084926076 0.98019004 0.00035299931
-0.1148314 0.065045804 0.47950637 0.17822692 -0.084689066 0.98033816 0.00036542772
-0.1129585 0.064963557 0.47917512 0.17761381 -0.084057122 0.9805038 0.00037346641
-0.11113995 0.064908452 0.47885016 0.17759144 -0.083992563 0.98051339 0.00037459354
-0.11673335 0.066869304 0.4799878 0.17942284 -0.085961312 0.98000926 0.00034304967
-0.1149594 0.066840194 0.4796721 0.17878859 -0.085423924 0.9801721 0.00035852316
-0.11301382 0.06729243 0.47937131 0.17820938 -0.085029908 0.98031187 0.00037115591
-0.11115758 0.067215033 0.47903797 0.17754193 -0.084505536 0.98047829 0.00037757278
-0.11621002 0.068048395 0.47999442 0.17910084 -0.086204648 0.98004675 0.00034290945
-0.11503544 0.068609893 0.47982883 0.17929377 -0.085864909 0.98004133 0.00035185166
-0.11305363 0.069039181 0.47951391 0.17863017 -0.085375041 0.98020524 0.00037412829
-0.11118262 0.068952627 0.47918394 0.17784238 -0.084847525 0.9803943 0.00038280428
-0.11315445 0.07082238 0.47967583 0.17912535 -0.085900895 0.98006892 0.00036974222
-0.11055226 0.07064312 0.47920921 0.17795974 -0.084971219 0.9803623 0.00038715103
-0.10872708 0.071152627 0.47893485 0.17787226 -0.084589355 0.98041117 0.00039707648
-0.1126899 0.073187985 0.47978321 0.17976354 -0.085877553 0.97995412 0.0003635177
-0.11068073 0.073017001 0.47942489 0.17866233 -0.085094027 0.98022383 0.00038045086
-0.10877539 0.072904699 0.47908792 0.17840028 -0.084334306 0.9803372 0.00039120979
-0.10761319 0.072892174 0.47889081 0.17816652 -0.08388368 0.98041838 0.0003924394
-0.11086652 0.074852996 0.47960904 0.17984033 -0.085165605 0.98000216 0.00037185955
-0.10896236 0.075316004 0.47932357 0.17948489 -0.084116817 0.98015791 0.00037605711
-0.10708394 0.075215198 0.47899488 0.17886595 -0.083823688 0.98029613 0.00038077575
-0.10532148 0.075757861 0.47873634 0.17884307 -0.083290398 0.98034579 0.00037979326
-0.11033238 0.076604009 0.47966638 0.18034007 -0.084845468 0.97993809 0.00036064789
-0.10913458 0.077146418 0.4795078 0.18018529 -0.084033132 0.98003656 0.0003668741
-0.10719278 0.077006489 0.47916394 0.17946236 -0.083539151 0.98021144 0.00037593057
-0.10535327 0.076926634 0.47884038 0.17888325 -0.083136238 0.98035157 0.0003771148
-0.10883242 0.079115525 0.47962272 0.18088315 -0.084367596 0.97987926 0.00035555911
-0.10707369 0.078584887 0.47927642 0.17976312 -0.083594516 0.98015159 0.00037189585
-0.10484514 0.078689486 0.47889566 0.17889796 -0.083152086 0.98034751 0.00037135201
-0.10815617 0.081283078 0.47968715 0.18089195 -0.084417507 0.97987336 0.00034868022
-0.10684552 0.081175968 0.47944826 0.18033835 -0.08411669 0.98000127 0.00036214231
-0.10499319 0.081084833 0.47911713 0.17924128 -0.083593741 0.98024726 0.00036988716
-0.1030649 0.081517398 0.47881064 0.17853059 -0.08341746 0.98039192 0.00036706304
-0.10696802 0.08298336 0.47961468 0.18119112 -0.084430434 0.97981697 0.00034949047
-0.10510117 0.082882479 0.47928178 0.17996261 -0.083882846 0.98009038 0.00035937547
-0.10277812 0.083495542 0.4789212 0.17876048 -0.083839066 0.98031408 0.00036392981
-0.1070483 0.084189728 0.47972846 0.18150054 -0.084890269 0.97971994 0.00033917144
-0.10522148 0.084690906 0.47944987 0.18037362 -0.08465983 0.97994798 0.0003502412
-0.102722 0.085119471 0.47904426 0.17898838 -0.084251001 0.98023719 0.00036139955
-0.10079353 0.084968977 0.4786869 0.17833877 -0.084190741 0.98036075 0.00036433854
-0.10511739 0.086864173 0.47961098 0.18075101 -0.085580952 0.97979844 0.00034437396
-0.10282736 0.086920142 0.47921225 0.17917472 -0.085050233 0.98013413 0.00035674302
-0.10090921 0.086774744 0.47886011 0.17841598 -0.084859498 0.98028904 0.00035968737
-0.099601388 0.087231085 0.47866493 0.17795682 -0.085000925 0.98036027 0.00035881359
-0.10469181 0.089335211 0.47974584 0.18060026 -0.086504444 0.97974515 0.00034066098
-0.10284012 0.089236058 0.47941244 0.17931128 -0.086112492 0.98001635 0.00035291299
-0.10092112 0.089087218 0.47906238 0.17847909 -0.085753553 0.98019975 0.00036061145
-0.09962213 0.088971503 0.47881919 0.17802 -0.085854732 0.98027438 0.00036121203
-0.10294523 0.09104117 0.47958514 0.17972325 -0.086654194 0.97989315 0.00035368779
-0.10103695 0.090898275 0.47923508 0.17845426 -0.086546011 0.98013461 0.00036239182
-0.098896921 0.091104269 0.47887069 0.17779435 -0.086811662 0.98023105 0.00036810857
-0.097310737 0.091818325 0.47864959 0.1776332 -0.087403297 0.98020768 0.00037214725
-0.10245684 0.092832126 0.47965038 0.1789386 -0.087410569 0.97996956 0.00035880844
-0.10110549 0.092677981 0.4793998 0.17829327 -0.087633058 0.98006731 0.00036553375
-0.099415414 0.092742659 0.47910368 0.17785139 -0.087623537 0.98014843 0.00036589516
-0.097293809 0.092956528 0.47874302 0.17761758 -0.087817885 0.98017347 0.00036967554
-0.10242204 0.095117994 0.47984082 0.17872843 -0.088313736 0.97992694 0.00035830837
-0.10109431 0.09497799 0.47959539 0.17806922 -0.088534497 0.98002702 0.00036337276
-0.099248752 0.094873115 0.47925827 0.1774707 -0.088638432 0.9801262 0.00036512516
-0.096770272 0.09471605 0.47880048 0.17738663 -0.088817373 0.98012525 0.00036496276
-0.10115428 0.097331956 0.47980729 0.17774543 -0.089111134 0.98003358 0.00035385831
-0.099317975 0.097233243 0.47947928 0.17715572 -0.089135639 0.98013812 0.0003533299
-0.096849367 0.097081363 0.47902647 0.17726974 -0.089654952 0.98007011 0.00035100829
-0.095033005 0.096992068 0.47869313 0.17761584 -0.089993581 0.97997642 0.00035046632
-0.10115205 0.09906292 0.4799538 0.17772752 -0.089352295 0.98001486 0.00034637281
-0.099338986 0.098980658 0.47963166 0.17705548 -0.089535788 0.98011976 0.00034660276
-0.096880145 0.098835029 0.47918689 0.17722872 -0.089664601 0.98007667 0.00034113129
-0.095043167 0.099304296 0.47890025 0.17730236 -0.09021569 0.98001277 0.00033506443
-0.093886048 0.099285729 0.47869378 0.17740248 -0.090335041 0.97998363 0.00033062397
-0.10040095 0.1006093 0.47995627 0.17697591 -0.089550547 0.98013276 0.00033743275
-0.098778754 0.10071949 0.47968358 0.17682011 -0.089648716 0.98015189 0.00033491506
-0.096922994 0.10059932 0.47934833 0.17680511 -0.089900315 0.98013157 0.00033078549
-0.094505534 0.10105705 0.47896436 0.17692856 -0.090119578 0.98008913 0.00032560324
-0.092724979 0.10099232 0.47864088 0.17783022 -0.090556398 0.9798857 0.00032627047
-0.098906107 0.10313233 0.47991517 0.17675897 -0.089603193 0.98016709 0.00032479528
-0.09705998 0.10301871 0.47958449 0.17652057 -0.089616865 0.98020881 0.00032288686
-0.09458138 0.10284919 0.47913536 0.1765096 -0.090140283 0.9801628 0.00031582708
-0.092787959 0.102773 0.47881284 0.17714119 -0.090634748 0.98000324 0.00031335437
-0.09125784 0.10294918 0.47855633 0.17794929 -0.091093875 0.97981423 0.0003133686
-0.097106226 0.10536772 0.47979265 0.17613845 -0.089353554 0.98030156 0.00031227508
-0.094614543 0.10518476 0.47934598 0.17613319 -0.089720927 0.98026896 0.00030975611
-0.092797294 0.10508808 0.47902203 0.17670003 -0.089960903 0.98014498 0.00030423678
-0.091083802 0.10507661 0.47871971 0.17702548 -0.090661488 0.98002166 0.00029993136
-0.089350358 0.10504668 0.47840509 0.17782329 -0.091475911 0.97980154 0.00029630773
-0.097057804 0.1070616 0.47992882 0.17606118 -0.089378417 0.98031318 0.00030661904
-0.094600223 0.10690448 0.47949159 0.17591381 -0.089381948 0.98033935 0.0002994354
-0.092816465 0.10683452 0.47917697 0.17623098 -0.089660838 0.98025692 0.00029665517
-0.091079734 0.106803 0.47887212 0.17650376 -0.090206549 0.98015773 0.00029022331
-0.088792153 0.10736077 0.47851259 0.17676534 -0.091024965 0.98003495 0.00028272835
-0.097055286 0.10879333 0.48007637 0.17591298 -0.088898301 0.98038346 0.00029741161
-0.094631501 0.10866343 0.47964618 0.17577717 -0.089285187 0.98037267 0.00029250464
-0.092813917 0.10856348 0.47932267 0.17577091 -0.08954452 0.98035014 0.00029087369
-0.091087237 0.10854088 0.47902405 0.1760761 -0.089764498 0.98027521 0.00028375859
-0.08882051 0.10911682 0.47867322 0.17624204 -0.090186797 0.98020667 0.0002812226
-0.096562564 0.11059245 0.480147 0.17565826 -0.088475682 0.98046738 0.0002894855
-0.094605632 0.11092416 0.47983757 0.17546791 -0.088433839 0.98050523 0.00028206123
-0.092958502 0.11100043 0.47955784 0.17562857 -0.088888191 0.98043537 0.00027808195
-0.091197237 0.11094751 0.4792501 0.17566028 -0.089339472 0.98038864 0.00027827491
-0.088882551 0.11090413 0.47883642 0.17606972 -0.08965414 0.98028648 0.00027650947
-0.087040663 0.11077379 0.47849378 0.17677221 -0.090299562 0.98010081 0.00027426865
-0.093134195 0.11289009 0.4797489 0.17537029 -0.088307895 0.98053402 0.00027439371
-0.091274999 0.11332809 0.47946176 0.17516738 -0.088707224 0.98053426 0.00026999789
-0.088915154 0.11324373 0.47903746 0.17524719 -0.089136206 0.98048109 0.00026727354
-0.087093823 0.11313076 0.47870252 0.17617206 -0.08966925 0.98026669 0.00026665124
-0.08586552 0.11361738 0.47852474 0.17698951 -0.089792483 0.98010814 0.00026644723
-0.093162432 0.11407208 0.47985181 0.17491812 -0.088277534 0.98061752 0.00026742904
-0.091338851 0.11511999 0.47962233 0.17474276 -0.088283576 0.98064822 0.00026734162
-0.088889673 0.11495338 0.47918019 0.17515889 -0.088726811 0.98053402 0.00026645651
-0.08708939 0.11485898 0.4788532 0.17602257 -0.088890493 0.9803645 0.0002650856
-0.08546596 0.11552074 0.47862029 0.17706205 -0.088914365 0.98017514 0.00026358836
-0.090864576 0.11694311 0.47969979 0.17472604 -0.08788693 0.98068684 0.00026240924
-0.088983573 0.11677595 0.47935611 0.17513373 -0.087803885 0.98062158 0.00026287741
-0.087106571 0.11660833 0.47901016 0.17573234 -0.088245444 0.98047483 0.00026208433
-0.085279003 0.11706255 0.47872132 0.17727602 -0.088052064 0.9802143 0.00026677013
-0.089123629 0.11922249 0.47959226 0.17510284 -0.087198578 0.98068112 0.00026431837
-0.086741187 0.11912463 0.47916612 0.1757659 -0.087274797 0.98055571 0.00026102224
-0.085105866 0.11861769 0.478829 0.17714547 -0.087526418 0.98028499 0.00026515403
-0.083564602 0.11877651 0.4785614 0.17853954 -0.087557167 0.98002928 0.00027390895
-0.088506632 0.12091228 0.47963321 0.17507948 -0.086467654 0.98074996 0.00026683867
-0.086598605 0.1212903 0.47933373 0.17584433 -0.086514801 0.980609 0.0002654428
-0.084767468 0.12115951 0.47899818 0.17707963 -0.086558864 0.98038274 0.00026605526
-0.083211839 0.12130344 0.47872567 0.1786743 -0.087078594 0.98004735 0.00027279995
-0.088575833 0.12213865 0.47975442 0.17509466 -0.086612143 0.98073453 0.00026768385
-0.086733535 0.12315853 0.47952256 0.17595713 -0.086054675 0.98062921 0.00026947015
-0.084911674 0.12303723 0.47919092 0.17682469 -0.086097971 0.98046935 0.0002663596
-0.083094709 0.12291569 0.47884944 0.17827366 -0.086460896 0.98017502 0.00027353733
-0.081280097 0.12279502 0.478508 0.18009892 -0.08691036 0.97980148 0.00028345041
-0.086826198 0.12498815 0.47969678 0.17613637 -0.085753784 0.98062342 0.00027222163
-0.085013248 0.12487481 0.47937143 0.17682156 -0.085860468 0.98049074 0.00027131295
-0.083215706 0.12477402 0.47903958 0.17781532 -0.086019881 0.98029703 0.00027314443
-0.080978446 0.12479746 0.47863075 0.17981827 -0.086405657 0.97989768 0.00028162746
-0.086287923 0.12733582 0.47980157 0.17617579 -0.085285306 0.98065716 0.00027506435
-0.085086174 0.12726627 0.47958663 0.17661367 -0.085329965 0.98057455 0.00027588059
-0.083286643 0.12716234 0.47926 0.17736031 -0.085608587 0.98041546 0.00027463332
-0.080861665 0.12699237 0.4788059 0.1793025 -0.085744351 0.98005027 0.00027781978
-0.079039454 0.12685785 0.47845602 0.18118599 -0.086333737 0.97965205 0.00028704238
-0.077879608 0.12740147 0.47828889 0.1822429 -0.086799368 0.97941482 0.00028912217
-0.085167989 0.12908837 0.4797526 0.17675547 -0.084686458 0.98060477 0.00028101806
-0.083324447 0.12893952 0.47941878 0.17742349 -0.084821418 0.98047245 0.00027980315
-0.08075235 0.1291983 0.4789767 0.17868882 -0.084958866 0.98023075 0.00027721765
-0.079127707 0.1292654 0.47868907 0.18034905 -0.085668318 0.9798649 0.00027879915
-0.077349134 0.12917289 0.47835067 0.18227731 -0.08624088 0.97945774 0.00028693175
-0.083373792 0.13073012 0.47957504 0.17734063 -0.084402993 0.98052353 0.00028082813
-0.081155829 0.13077192 0.47918582 0.17829168 -0.08459793 0.98033428 0.00027792246
-0.079184189 0.13106355 0.47885707 0.17992352 -0.084815778 0.98001724 0.00027534098
-0.077393636 0.13095722 0.47852057 0.18166308 -0.085159622 0.97966647 0.00027749446
-0.075607136 0.13085267 0.47817436 0.18378915 -0.085907906 0.97920448 0.00029035582
-0.083340406 0.13301551 0.47975969 0.17709537 -0.083622612 0.98063475 0.00028807667
-0.080931716 0.13286005 0.47932464 0.17825046 -0.083674431 0.98042101 0.00028153646
-0.079198815 0.13281821 0.4790152 0.17966916 -0.083955109 0.980138 0.00027416134
-0.077386439 0.13268819 0.47867632 0.18131199 -0.084377661 0.97979915 0.00027117715
-0.07557825 0.13255878 0.478329 0.18315031 -0.085076004 0.97939676 0.00028232002
-0.082781717 0.13534334 0.47985005 0.17711113 -0.082550488 0.98072273 0.0002947585
-0.080961101 0.1352105 0.47952574 0.17806295 -0.082999259 0.9805125 0.00028517691
-0.078576982 0.13507484 0.4790968 0.17964642 -0.083111748 0.98021406 0.00027522523
-0.076774471 0.13495329 0.47876558 0.18092614 -0.08379361 0.97992057 0.00026994792
-0.075541481 0.13483578 0.47852796 0.18213251 -0.084400564 0.97964495 0.00027428594
-0.080998451 0.13699146 0.47968245 0.17788111 -0.082092993 0.98062176 0.00029133147
-0.078363791 0.13717261 0.47923642 0.17916718 -0.082898498 0.9803198 0.00028009774
-0.076780796 0.13727845 0.47896621 0.18012626 -0.083425313 0.98009938 0.00027814892
-0.075506471 0.13711323 0.47871974 0.18110758 -0.083644941 0.97989976 0.0002779745
-0.081025422 0.13876244 0.47983545 0.17764696 -0.082340583 0.98064345 0.00029541118
-0.078795768 0.13878019 0.47944459 0.17847973 -0.082814194 0.98045236 0.00029198398
-0.076755494 0.13898906 0.47910541 0.17955758 -0.083515152 0.98019606 0.0002814036
-0.075480737 0.13882104 0.47886088 0.1806632 -0.083841771 0.97996497 0.00027960329
-0.080494381 0.14054269 0.47989058 0.17734613 -0.082732052 0.98066497 0.00030203431
-0.078637265 0.14094125 0.47959948 0.17806946 -0.083335616 0.98048276 0.00029724083
-0.076772176 0.14074565 0.47925091 0.17892773 -0.083827794 0.98028451 0.00029142119
-0.075149886 0.14080244 0.47897005 0.18030107 -0.084464937 0.97997814 0.00028236321
-0.078147776 0.14276785 0.47966206 0.17767514 -0.083591782 0.98053247 0.00029928715
-0.076942794 0.14326204 0.47949129 0.17833675 -0.084077403 0.98037082 0.00029027331
-0.075100735 0.14308706 0.47914675 0.17927788 -0.084716812 0.98014414 0.00028341688
-0.073192939 0.14341068 0.47882849 0.1808653 -0.085405931 0.97979259 0.00027072837
-0.07708054 0.14516529 0.47967455 0.1777648 -0.084599316 0.98042983 0.00029360902
-0.075247191 0.14500013 0.4793331 0.17862612 -0.084980659 0.98024029 0.00028308213
-0.072642572 0.14516243 0.4788765 0.18058559 -0.085777067 0.97981179 0.00027067409
-0.075302526 0.14680916 0.47949392 0.17804262 -0.085401945 0.98030984 0.00028328461
-0.072726913 0.14700367 0.47905001 0.17957589 -0.086107761 0.97996837 0.00026765899
-0.070920832 0.14686014 0.4787091 0.18173401 -0.086966522 0.97949457 0.00025755903
-0.074759595 0.14857978 0.47954687 0.17804222 -0.085813843 0.9802739 0.00027958766
-0.072811089 0.14884774 0.47922119 0.17902857 -0.086380422 0.98004448 0.00026941762
-0.07097359 0.14866552 0.47887719 0.18096094 -0.086760528 0.97965592 0.00025719751
-0.069815643 0.14920446 0.47870627 0.18257223 -0.086996228 0.97933602 0.00025395246
-0.072906546 0.15128897 0.47944391 0.17863333 -0.086054407 0.98014528 0.00028005053
-0.071038544 0.15106794 0.4790909 0.18035677 -0.08635623 0.97980309 0.00026817594
-0.069253661 0.15094571 0.47875619 0.18246935 -0.086746395 0.97937733 0.00025849242
-0.06752222 0.15146737 0.47847846 0.1843867 -0.087605096 0.97894174 0.00025844254
-0.07290107 0.15302628 0.47958866 0.17836468 -0.085867614 0.9802106 0.00029506462
-0.071072161 0.15285218 0.47924769 0.17995451 -0.086304002 0.97988164 0.00027943702
-0.069287241 0.15331127 0.47896639 0.18179512 -0.08659298 0.97951633 0.00026932656
-0.067514323 0.15320009 0.47863105 0.1838319 -0.08699768 0.97910023 0.00026215997
-0.072916016 0.15478924 0.47973636 0.17829421 -0.086173154 0.9801966 0.00030845788
-0.071066044 0.15458833 0.47939417 0.17993504 -0.086212002 0.97989333 0.00028974263
-0.069290616 0.1550588 0.4791154 0.18153788 -0.086288817 0.97959083 0.00028167357
-0.066971138 0.15496725 0.47868812 0.18391326 -0.086682655 0.97911286 0.00026834861
-0.072405152 0.15718471 0.47983837 0.17902146 -0.086347714 0.98004866 0.0003215585
-0.070757888 0.15719359 0.47955087 0.18046361 -0.086014181 0.97981346 0.00031017794
-0.069134876 0.15664943 0.47921991 0.18168354 -0.085984558 0.97959059 0.00029387113
-0.067032389 0.15679093 0.47885373 0.18383409 -0.085945107 0.97919273 0.00027757243
-0.064889543 0.15687291 0.47846252 0.18569358 -0.086349018 0.97880626 0.00027583356
-0.070411593 0.15917075 0.47964969 0.1809984 -0.086522132 0.97967011 0.00031658568
-0.068870582 0.15931487 0.47939369 0.18249404 -0.086095922 0.97943014 0.00029862407
-0.067124352 0.15923804 0.47907379 0.18345886 -0.085811242 0.97927487 0.00029310881
-0.064768285 0.15909304 0.47863019 0.18557191 -0.086058266 0.97885495 0.00028733743
-0.062992379 0.15896654 0.4782778 0.18820164 -0.086215042 0.97833896 0.00028899926
-0.070892073 0.16086075 0.47987372 0.18105869 -0.087090589 0.9796086 0.00031890837
-0.068884052 0.16107914 0.47954234 0.18286076 -0.086921275 0.97928882 0.00030641918
-0.06721507 0.16110542 0.47924525 0.18353772 -0.086138435 0.97923136 0.00030135896
-0.064819023 0.16090691 0.47879076 0.18559033 -0.085662469 0.97888619 0.00029600991
-0.062994689 0.16129608 0.47847667 0.18807021 -0.085892998 0.97839254 0.00029346303
-0.070177965 0.16246538 0.47988373 0.18162194 -0.087310955 0.97948468 0.00032160565
-0.068984821 0.16237743 0.47966641 0.18302946 -0.087094888 0.97924191 0.0003052424
-0.067306183 0.16297559 0.47941494 0.18403366 -0.086479589 0.97910821 0.00030130305
-0.064898804 0.1627617 0.47895998 0.1857699 -0.085862175 0.97883463 0.00029745454
-0.063062675 0.16313584 0.47864962 0.18776968 -0.085642524 0.97847223 0.00029664961
-0.065018572 0.16525626 0.47918776 0.18665273 -0.086181566 0.97863859 0.00029775983
-0.063113406 0.16495194 0.478807 0.18789011 -0.085296683 0.97847933 0.0002958315
-0.061833628 0.16473155 0.47854733 0.18900868 -0.085231394 0.97826958 0.00029447133
-0.064427331 0.16696543 0.47921884 0.18729873 -0.085347265 0.97858828 0.00028703685
-0.063135266 0.16731314 0.47900939 0.18824659 -0.085237645 0.97841597 0.00027918501
-0.061457463 0.16725077 0.47868797 0.18978423 -0.085018151 0.97813797 0.0002774419
-0.064457722 0.16875929 0.47937986 0.18767382 -0.085482687 0.9785046 0.00027418698
-0.063241966 0.16921282 0.47919235 0.18848208 -0.085289344 0.97836608 0.00026843569
-0.061108921 0.16922775 0.4787896 0.19005859 -0.084944069 0.97809112 0.00026353658
-0.059482273 0.16981304 0.4785274 0.19154511 -0.084951676 0.97780043 0.00025270073
-0.062905483 0.17121299 0.47930083 0.18888201 -0.084793031 0.9783321 0.00026034861
-0.061417695 0.17076272 0.47897935 0.18992282 -0.084847294 0.97812587 0.0002564957
-0.059576564 0.1711152 0.47865954 0.1914781 -0.084555648 0.97784787 0.0002498219
-0.062519006 0.17314157 0.47938719 0.18950123 -0.084240474 0.9782601 0.00025943285
-0.060865097 0.17310883 0.47907305 0.19014199 -0.084107272 0.97814721 0.00025507348
-0.058958538 0.17277908 0.47868168 0.19182834 -0.084169179 0.97781259 0.00024663366
-0.062119529 0.17505209 0.47946909 0.18986751 -0.083905563 0.97821784 0.00026059998
-0.0608484 0.17541943 0.47926235 0.19030298 -0.083709449 0.97815007 0.00025540532
-0.058950815 0.17509983 0.4788751 0.19152504 -0.084073134 0.9778803 0.00024948586
-0.062111467 0.17679447 0.47961479 0.19004923 -0.083875403 0.97818518 0.00025976938
-0.060896784 0.17724326 0.47942665 0.19045849 -0.083377086 0.97814816 0.00026001196
-0.058970179 0.17687874 0.47903118 0.19133775 -0.08370316 0.97794867 0.00025320332
-0.057140607 0.17782047 0.47876951 0.19248255 -0.084220573 0.97767961 0.00024805925
-0.060945436 0.17906964 0.47959 0.19069526 -0.083427414 0.97809774 0.0002602938
-0.059027214 0.17871597 0.4791992 0.19109929 -0.083592802 0.97800475 0.0002574221
-0.056587864 0.17899612 0.47876629 0.19213073 -0.084282219 0.97774345 0.00025468774
-0.060993526 0.18089676 0.47975621 0.190696 -0.083280988 0.97811007 0.00026717701
-0.059036911 0.18106808 0.47940436 0.19142091 -0.083427325 0.977956 0.00026553631
-0.056587901 0.18074718 0.47891802 0.19179629 -0.083807394 0.97784996 0.00026308466
-0.054871738 0.181271 0.47864476 0.19217701 -0.084663361 0.97770143 0.00027214398
-0.060965717 0.18261157 0.47989905 0.19102983 -0.083001621 0.97806865 0.00027163792
-0.058848791 0.18321061 0.4795554 0.19155401 -0.083167903 0.977952 0.00027115052
-0.056615241 0.1831263 0.47913003 0.19178015 -0.083721824 0.97786045 0.00027322859
-0.054861829 0.18300793 0.47879463 0.19206759 -0.08466088 0.97772318 0.00028281455
-0.053376786 0.18321139 0.47853741 0.19176728 -0.085166998 0.97773814 0.00029124066
-0.060937896 0.18432648 0.48004144 0.19117703 -0.082833081 0.97805423 0.00027473454
-0.059318803 0.18491885 0.47979251 0.19121969 -0.083278172 0.97800809 0.00027662431
-0.056624293 0.18489355 0.47928494 0.19153379 -0.083645433 0.97791523 0.00028039608
-0.054851837 0.18474478 0.47894594 0.19172746 -0.084630363 0.97779256 0.00028925316
-0.053173073 0.18532591 0.47868347 0.19156907 -0.085427627 0.97775429 0.00031257575
-0.051474944 0.1858764 0.47842383 0.19125022 -0.086997628 0.97767824 0.00032199905
-0.059121646 0.18705006 0.47993925 0.19145557 -0.082735293 0.97800797 0.00028332
-0.056642633 0.18667665 0.47944161 0.19160256 -0.083461605 0.97791749 0.00028974691
-0.054878473 0.18654126 0.47910842 0.19140263 -0.084159456 0.97789681 0.00030143908
-0.053171575 0.18707752 0.4788397 0.19109604 -0.08529532 0.97785836 0.00032384961
-0.051456634 0.187015 0.47851813 0.19092853 -0.087064423 0.97773516 0.00033657814
-0.058483209 0.18927053 0.48000488 0.19193998 -0.082261831 0.97795296 0.00029913223
-0.056688476 0.18908983 0.47965938 0.19157998 -0.083007418 0.97796059 0.00030759958
-0.054932553 0.18896769 0.47932911 0.19114989 -0.084130414 0.97794878 0.00032595888
-0.053215533 0.18890403 0.47900954 0.19036454 -0.085238382 0.97800601 0.00034025719
-0.050910413 0.18879068 0.47857395 0.19018526 -0.087764263 0.97781748 0.00034828956
-0.049206346 0.18932837 0.47829649 0.1907298 -0.089129247 0.97758794 0.00035010959
-0.058493104 0.19104353 0.48015794 0.19176064 -0.081638403 0.9780404 0.00030994354
-0.05669827 0.1908614 0.47980964 0.19180997 -0.082681999 0.97794306 0.00032095742
-0.054950908 0.19133756 0.47953337 0.19102453 -0.084433332 0.97794718 0.0003438585
-0.053222634 0.19125733 0.47922021 0.19003972 -0.08614783 0.97798949 0.00036034212
-0.050925504 0.19115742 0.47878811 0.18910731 -0.088073418 0.97799873 0.00036731514
-0.048851706 0.19131112 0.4784098 0.18973142 -0.090129815 0.97769046 0.00035751433
-0.058502603 0.19281742 0.4803119 0.19188237 -0.08196643 0.97798908 0.00032623849
-0.05671623 0.19264776 0.47996855 0.19172916 -0.083335571 0.97790343 0.00033493331
-0.054977905 0.19313915 0.47969395 0.19079928 -0.08397764 0.97803038 0.0003531476
-0.05322111 0.19301184 0.47937626 0.18977702 -0.086174637 0.97803813 0.0003683859
-0.050914653 0.19289599 0.47894266 0.18868767 -0.088393383 0.97805089 0.00037661847
-0.048681498 0.19290246 0.47852439 0.18904878 -0.090442315 0.97779381 0.00036519975
-0.056808971 0.19455673 0.48014772 0.19160774 -0.083010346 0.97795486 0.00034648308
-0.054723449 0.19528934 0.47982678 0.19056877 -0.083943903 0.97807819 0.00036570898
-0.053113896 0.19470748 0.47949857 0.18951263 -0.08599028 0.97810566 0.00037233217
-0.050956625 0.19472621 0.47911432 0.18802974 -0.088083155 0.97820556 0.00038059548
-0.048679058 0.19465603 0.47868049 0.18816999 -0.089899234 0.9780134 0.00037464933
-0.054028835 0.19694513 0.47985059 0.18964618 -0.08508525 0.97815889 0.00037882818
-0.052807696 0.1967779 0.47962469 0.18905987 -0.087093391 0.97809565 0.00038838095
-0.051006034 0.19715859 0.47934479 0.18735434 -0.088889748 0.97826225 0.0003992334
-0.048673872 0.19699402 0.47890037 0.18693045 -0.09104421 0.97814518 0.00039687124
-0.052896421 0.19810468 0.4797543 0.18897003 -0.086624131 0.97815466 0.00040205813
-0.051049378 0.19899388 0.47950801 0.18723781 -0.088243343 0.97834307 0.00041520214
-0.048653327 0.19930327 0.47910511 0.18648712 -0.090492815 0.97828096 0.00041419343
-0.046878323 0.19912745 0.4787637 0.18711144 -0.09221077 0.9780013 0.00041035988
-0.045712493 0.19962192 0.47858 0.18681203 -0.092615865 0.97802025 0.000402142
-0.19897227 -0.10469706 0.47969678 0.19540849 -0.091974445 0.9763996 0.00085776893
-0.19925636 -0.10305314 0.47991112 0.19669399 -0.090647928 0.97626555 0.00089646236
-0.19713359 -0.1029203 0.47947913 0.19576046 -0.088522665 0.97664815 0.0008297473
-0.19594344 -0.10231272 0.47929239 0.19626929 -0.087988451 0.97659427 0.00079777499
-0.1993635 -0.10080102 0.48016709 0.20038198 -0.088178024 0.97574162 0.00092429435
-0.19742455 -0.10071024 0.4797563 0.19839631 -0.086583756 0.97628999 0.00085272884
-0.19566345 -0.100431 0.47941187 0.1973199 -0.085543856 0.97659975 0.00081022287
-0.19941317 -0.098534942 0.48042092 0.20469312 -0.08625152 0.97501868 0.00090851821
-0.19691373 -0.099002622 0.4798221 0.20006014 -0.084857196 0.97610205 0.00085817499
-0.19492149 -0.098900698 0.47940862 0.19818188 -0.084020793 0.97655743 0.00081150938
-0.19933991 -0.09681198 0.48059982 0.20826998 -0.085316159 0.97434324 0.00087974052
-0.19688076 -0.097288273 0.47999901 0.20296799 -0.083841771 0.97558933 0.00084542815
-0.1948165 -0.097171597 0.4795627 0.20012361 -0.082813337 0.97626454 0.00080547138
-0.19930197 -0.095096894 0.48078912 0.21160509 -0.084322222 0.97371095 0.00084981648
-0.19687259 -0.09500888 0.48023942 0.20678858 -0.082971446 0.97486115 0.00082928076
-0.19477198 -0.09488713 0.47979119 0.20385268 -0.081838019 0.97557503 0.00080278126
-0.19928817 -0.092816062 0.48104754 0.21657296 -0.084131248 0.97263461 0.00082460261
-0.19695574 -0.09274742 0.48050728 0.2118648 -0.082611032 0.9738012 0.00081801554
-0.19483724 -0.092623889 0.48003823 0.20776694 -0.081555702 0.97477257 0.00080277427
-0.19936644 -0.090553068 0.48133197 0.22151986 -0.08348567 0.97157556 0.0008198088
-0.19701336 -0.091048338 0.48070386 0.21494605 -0.08300525 0.97309214 0.00081603759
-0.19491304 -0.09093108 0.48023245 0.21088956 -0.081347138 0.97411919 0.00080189673
-0.19344254 -0.090838522 0.47991094 0.20741278 -0.080062181 0.97497177 0.00080711249
-0.19942036 -0.088853151 0.48154142 0.22515221 -0.083346926 0.97075218 0.00080775749
-0.19706923 -0.089349329 0.48090807 0.21801884 -0.082604468 0.97244245 0.00080034602
-0.19498767 -0.089237943 0.48043761 0.21450694 -0.0807271 0.97338068 0.00078852632
-0.1934429 -0.089132272 0.48009086 0.21068211 -0.079938911 0.97428066 0.00078463554
-0.19888285 -0.087703288 0.48154134 0.22608232 -0.083177678 0.97055048 0.0007888457
-0.19711348 -0.087076172 0.48116741 0.22284882 -0.081989177 0.97139907 0.00077122363
-0.19520263 -0.086996399 0.48071656 0.21877933 -0.081085734 0.97239947 0.00074974273
-0.19333532 -0.08670564 0.48030809 0.21405397 -0.080568999 0.97349346 0.00073634298
-0.19655333 -0.084779501 0.48127082 0.22550109 -0.081621498 0.9708178 0.00072655641
-0.19530605 -0.084731236 0.48096722 0.22167245 -0.081344038 0.97172242 0.00072114792
-0.19317196 -0.084615253 0.48047531 0.21630938 -0.08054857 0.97299647 0.0007110447
-0.19651665 -0.083059169 0.48143175 0.22695273 -0.081953071 0.97045153 0.00070858194
-0.19534661 -0.083023965 0.48114383 0.22367755 -0.081773944 0.97122675 0.000697184
-0.19321178 -0.08291094 0.48064902 0.21836132 -0.080968671 0.97250319 0.00068451243
-0.19115642 -0.082811356 0.4801887 0.21295348 -0.080141775 0.97377002 0.00068798155
-0.19644122 -0.081333131 0.48158437 0.22843617 -0.081923865 0.97010589 0.00067336124
-0.19527301 -0.081297867 0.48129278 0.22512582 -0.082224146 0.97085404 0.00066127902
-0.19317728 -0.08119335 0.48080358 0.21977836 -0.081662744 0.97212583 0.00065136154
-0.19123349 -0.081114277 0.48036724 0.21461608 -0.080719136 0.97335726 0.00065573712
-0.19646782 -0.079051003 0.48181415 0.23055209 -0.082087442 0.96959138 0.00064198842
-0.19526181 -0.079010963 0.48151603 0.22731824 -0.08208812 0.97035456 0.00062493363
-0.19324327 -0.078920521 0.48103386 0.2214848 -0.081591368 0.97174448 0.00061114837
-0.19126368 -0.078837343 0.48057967 0.21620785 -0.081339307 0.97295326 0.0006140999
-0.18989813 -0.078205176 0.48032612 0.21240559 -0.081233636 0.97379923 0.0006210329
-0.1964591 -0.076761305 0.4820205 0.23196492 -0.083306752 0.9691503 0.00061736972
-0.19521639 -0.076716334 0.48171014 0.22820224 -0.083063439 0.97006404 0.00060564338
-0.1933115 -0.076644883 0.4812516 0.22299466 -0.082815163 0.97129554 0.00059351587
-0.1909208 -0.076740824 0.48068547 0.21711335 -0.082144991 0.97268391 0.00060089718
-0.19693252 -0.075046301 0.48228636 0.2332195 -0.08496543 0.96870506 0.00061920396
-0.19518436 -0.074994892 0.48184612 0.22839589 -0.084676735 0.96987897 0.00060707296
-0.19324282 -0.074919872 0.48137924 0.22299291 -0.084377661 0.97116148 0.00059154507
-0.19045396 -0.075196818 0.48070759 0.2152463 -0.083386749 0.97299314 0.00059286086
-0.18874781 -0.075325944 0.48031959 0.21118334 -0.082841456 0.97392964 0.0006083817
-0.19635636 -0.073312417 0.48228177 0.23116827 -0.086465336 0.969064 0.00058267883
-0.1951514 -0.073274232 0.48198587 0.22861221 -0.086293735 0.96968544 0.00057126081
-0.19323015 -0.073203072 0.48151973 0.22326198 -0.08609768 0.97094864 0.00056666881
-0.19066776 -0.073111042 0.4809294 0.21625857 -0.085948378 0.97254568 0.00056322472
-0.18885542 -0.073057488 0.48052725 0.21152864 -0.086237215 0.97355986 0.00057988422
-0.18760023 -0.072446615 0.48030728 0.20727928 -0.086672664 0.97443479 0.00059673248
